# .PCD v0.7 - Point Cloud Data file format
VERSION 0.7
FIELDS x y z normal_x normal_y normal_z curvature
SIZE 4 4 4 4 4 4 4
TYPE F F F F F F F
COUNT 1 1 1 1 1 1 1
WIDTH 610
HEIGHT 1
VIEWPOINT 0 0 0 1 0 0 0
POINTS 610
DATA ascii
-0.38600001 0.2863 -0.87699997 0.39238521 -0.29202262 0.8722136 0.0040781205
-0.4549 0.17020001 -0.87410003 0.43877921 -0.16469997 0.88337237 0.004365413
-0.4892 0.0396 -0.87120003 0.4928 -0.063811213 0.8677997 0.0043781125
-0.48660001 -0.095399998 -0.86839998 0.48550525 0.092626914 0.86931288 0.0047142939
-0.44760001 -0.2247 -0.86549997 0.45151323 0.23781316 0.85998875 0.0040872898
-0.37549999 -0.3389 -0.86269999 0.37917978 0.3460142 0.85819393 0.0043586008
-0.27559999 -0.42989999 -0.85979998 0.27785361 0.41273865 0.8674354 0.0044816155
-0.15530001 -0.49149999 -0.85689998 0.17501289 0.49155518 0.85307908 0.0044023171
-0.0231 -0.51959997 -0.85409999 0.033210382 0.52187723 0.8523739 0.0045620473
0.1119 -0.51279998 -0.85119998 -0.12978306 0.51941442 0.84460944 0.004091158
0.2406 -0.4716 -0.8484 -0.24161641 0.47894558 0.84393877 0.0044447682
0.35479999 -0.39910001 -0.84549999 -0.34456974 0.39273965 0.85265893 0.0045390129
0.447 -0.3003 -0.84259999 -0.44061115 0.32426682 0.83708596 0.0043574772
0.51169997 -0.1815 -0.8398 -0.52391237 0.18409906 0.83163893 0.0044061649
0.54500002 -0.0504 -0.8369 -0.53434658 0.04304307 0.84416884 0.0042904792
0.54509997 0.084799998 -0.83399999 -0.55303913 -0.092935175 0.82795572 0.0043557845
0.51230001 0.21600001 -0.8312 -0.50742286 -0.19465345 0.83942366 0.0043245521
0.44870001 0.3355 -0.8283 -0.46575168 -0.33117521 0.8206085 0.0043587713
0.3583 0.43610001 -0.82550001 -0.35667446 -0.45364308 0.81669539 0.0043179095
0.2466 0.51239997 -0.82260001 -0.22699952 -0.51049089 0.82937944 0.0042183162
0.1199 0.56 -0.8197 -0.10431046 -0.57399309 0.81218916 0.0042797676
-0.0144 0.57660002 -0.81690001 0.0016258593 -0.58452308 0.81137538 0.0043959436
-0.1489 0.5614 -0.81400001 0.14020006 -0.55146515 0.82233214 0.004431556
-0.2762 0.51550001 -0.81120002 0.27518278 -0.52976191 0.8022635 0.0044024345
-0.38960001 0.44150001 -0.80830002 0.40378654 -0.41655678 0.81451637 0.0042370157
-0.48300001 0.34349999 -0.80540001 0.47779432 -0.33699539 0.81126249 0.0045167953
-0.5517 0.2269 -0.80260003 0.53539366 -0.23779935 0.81043524 0.0043454263
-0.59240001 0.0977 -0.79970002 0.60061675 -0.11584632 0.79109997 0.0041438346
-0.60299999 -0.037300002 -0.79689997 0.61560673 0.015600401 0.78789908 0.0042155073
-0.58329999 -0.17120001 -0.79400003 0.5789544 0.15073363 0.80130589 0.004367989
-0.53439999 -0.29750001 -0.79110003 0.53640872 0.31879476 0.78143167 0.0043253577
-0.4589 -0.41 -0.78829998 0.44590414 0.41400203 0.79358172 0.0044848039
-0.36059999 -0.50309998 -0.78539997 0.3586666 0.49301344 0.79265124 0.0042807036
-0.24429999 -0.57260001 -0.78250003 0.25433451 0.58239776 0.77209252 0.0041032662
-0.1158 -0.61540002 -0.77969998 0.12200871 0.60681045 0.78542662 0.0043170741
0.018999999 -0.62940001 -0.77679998 -0.011835321 0.62099469 0.78372544 0.0044595986
0.15360001 -0.61430001 -0.77399999 -0.18583296 0.61929917 0.76284635 0.0042719319
0.28189999 -0.57090002 -0.77109998 -0.28589505 0.57851911 0.76392388 0.0047102058
0.39809999 -0.50129998 -0.76819998 -0.39887649 0.48948705 0.77543533 0.0043495507
0.4971 -0.40869999 -0.76539999 -0.51304597 0.41109809 0.75351328 0.0042759348
0.57450002 -0.29750001 -0.76249999 -0.56158412 0.30712193 0.76830935 0.0041819694
0.62699997 -0.1726 -0.7597 -0.63484341 0.18872443 0.74923754 0.004281119
0.65249997 -0.039500002 -0.7568 -0.64545733 0.059575997 0.7614693 0.0046093473
0.64990002 0.096000001 -0.75389999 -0.63428307 -0.087640174 0.76811725 0.004451951
0.6196 0.2281 -0.7511 -0.63068485 -0.23168419 0.74064773 0.0044372468
0.56290001 0.35120001 -0.7482 -0.57730263 -0.35340568 0.7360884 0.0042058625
0.48230001 0.46020001 -0.74540001 -0.47928602 -0.45467293 0.75070459 0.0041038143
0.38139999 0.55070001 -0.74250001 -0.37823308 -0.54475343 0.74845397 0.0042991806
0.26429999 0.61900002 -0.7396 -0.27095351 -0.63010007 0.72770751 0.0043294765
0.1358 0.66240001 -0.73680001 -0.13094002 -0.64770859 0.75055206 0.0045188819
0.0013 0.67930001 -0.73390001 0.007852491 -0.66373837 0.74792361 0.0044596135
-0.1339 0.66909999 -0.73100001 0.14892074 -0.67910153 0.71877933 0.0044007297
-0.26440001 0.63230002 -0.72820002 0.27685389 -0.64106953 0.71580851 0.0042203828
-0.38510001 0.57059997 -0.72530001 0.39242017 -0.55980015 0.72981513 0.0041445754
-0.4914 0.48640001 -0.72250003 0.49560416 -0.47207955 0.72905236 0.0044467128
-0.57910001 0.3831 -0.71960002 0.56762201 -0.38734761 0.72647578 0.0043832096
-0.64520001 0.2647 -0.71670002 0.63525343 -0.27004367 0.7235533 0.0046441453
-0.68699998 0.1357 -0.71390003 0.68993855 -0.13601236 0.71097499 0.0047808182
-0.70319998 0.001 -0.71100003 0.69612074 0.0052848612 0.71790522 0.004725771
-0.69319999 -0.13420001 -0.70819998 0.68752497 0.14006922 0.71252364 0.0042767785
-0.65750003 -0.26499999 -0.70529997 0.65100545 0.2705881 0.70920664 0.0043218117
-0.59759998 -0.3867 -0.70240003 0.60690242 0.39807495 0.68789947 0.0041290419
-0.51560003 -0.49470001 -0.69959998 0.50873548 0.49428219 0.7048924 0.0043003927
-0.4147 -0.58539999 -0.69669998 0.40693659 0.58392054 0.70245242 0.004395057
-0.2985 -0.65530002 -0.69379997 0.30659083 0.64824146 0.69698286 0.00453078
-0.17120001 -0.70230001 -0.69099998 0.19097991 0.71071696 0.67705828 0.0044450737
-0.037500001 -0.72460002 -0.68809998 0.047363192 0.72578722 0.68628681 0.0044561988
0.098200001 -0.7216 -0.68529999 -0.12007235 0.71443278 0.68932462 0.0042498489
0.2309 -0.6936 -0.68239999 -0.22812268 0.68739456 0.68952787 0.0046103732
0.35609999 -0.64139998 -0.67949998 -0.35447216 0.6375013 0.68406254 0.0043020439
0.46959999 -0.56709999 -0.6767 -0.4683148 0.56368661 0.68039584 0.0044380724
0.5675 -0.47319999 -0.67379999 -0.56703633 0.47145075 0.67542875 0.0044618389
0.64660001 -0.36300001 -0.671 -0.64582235 0.36026514 0.6731438 0.0045152614
0.70420003 -0.2402 -0.6681 -0.69351798 0.25888759 0.67231685 0.0041972552
0.73860002 -0.1089 -0.6652 -0.73091489 0.12834707 0.67029142 0.004404759
0.74870002 0.0264 -0.66240001 -0.76225585 -0.043299142 0.64582604 0.0043823193
0.7342 0.1613 -0.6595 -0.74589926 -0.17644221 0.64226353 0.0043653292
0.69559997 0.2913 -0.65670002 -0.68598258 -0.30563965 0.66031235 0.0041939067
0.63440001 0.41240001 -0.65380001 -0.62181139 -0.42543229 0.65753943 0.0042509912
0.55250001 0.52060002 -0.65090001 -0.55330127 -0.51811039 0.65224177 0.0043824054
0.4526 0.61250001 -0.64810002 -0.46526849 -0.61842078 0.63330948 0.0043635955
0.33809999 0.68510002 -0.64520001 -0.34105018 -0.68131047 0.64768881 0.0043335599
0.2124 0.73640001 -0.64230001 -0.21500129 -0.73228306 0.6461702 0.004382614
0.079700001 0.7647 -0.63950002 -0.081793278 -0.7588203 0.64614362 0.0047791535
-0.0559 0.76910001 -0.63660002 0.030057862 -0.76688761 0.64107716 0.0043973243
-0.1903 0.74980003 -0.63380003 0.20073715 -0.75012761 0.63008976 0.0044982024
-0.31909999 0.70719999 -0.63090003 0.33022547 -0.70489901 0.62774879 0.0046266755
-0.4386 0.64279997 -0.62800002 0.44715405 -0.63618606 0.62874526 0.0044787228
-0.54500002 0.55860001 -0.62519997 0.55277818 -0.54976636 0.62625337 0.0043629436
-0.63529998 0.45730001 -0.62230003 0.62931246 -0.46040979 0.62608999 0.0041972543
-0.70670003 0.34189999 -0.61949998 0.70166457 -0.34501508 0.62340307 0.0042453939
-0.75709999 0.2159 -0.61659998 0.76916045 -0.22442064 0.59835404 0.0041892682
-0.78509998 0.083099999 -0.61369997 0.79746389 -0.092678085 0.59620643 0.0042238925
-0.79000002 -0.0526 -0.61089998 0.78900534 0.045033157 0.61273372 0.0043824357
-0.77160001 -0.18709999 -0.60799998 0.77070677 0.17962125 0.61134875 0.0045548026
-0.73049998 -0.31639999 -0.60519999 0.71966195 0.31150067 0.62052721 0.0046172994
-0.6681 -0.43700001 -0.60229999 0.66331238 0.4449324 0.60170752 0.0046467409
-0.58609998 -0.54509997 -0.59939998 0.58604532 0.53080046 0.61221045 0.0044673379
-0.48699999 -0.63789999 -0.5966 0.47547799 0.64389902 0.59942865 0.0044390736
-0.37369999 -0.71270001 -0.59369999 0.36021993 0.71648753 0.59740049 0.0043424712
-0.2494 -0.76730001 -0.59079999 0.25658292 0.76128954 0.59548604 0.004446886
-0.1177 -0.8003 -0.588 0.12518418 0.79686612 0.59104431 0.0041583129
0.0176 -0.81080002 -0.5851 -0.010607714 0.80905968 0.58763081 0.0041309013
0.15279999 -0.7985 -0.58230001 -0.146314 0.79744273 0.58538651 0.0043587824
0.2841 -0.76389998 -0.5794 -0.2843734 0.77755398 0.56084007 0.0044288193
0.40779999 -0.708 -0.5765 -0.40426564 0.71572101 0.56948477 0.0046922918
0.5205 -0.63239998 -0.57370001 -0.5170365 0.62377143 0.58615905 0.0043823775
0.61919999 -0.53920001 -0.57080001 -0.61767536 0.52751696 0.5832693 0.0043318765
0.70120001 -0.43099999 -0.56800002 -0.70667726 0.41722178 0.57143098 0.004509469
0.76429999 -0.3107 -0.56510001 -0.75858498 0.31616744 0.56972528 0.004691042
0.80680001 -0.18179999 -0.56220001 -0.80398828 0.18799156 0.56414717 0.0043766573
0.82749999 -0.047600001 -0.55940002 -0.82698166 0.053660326 0.55966234 0.0043068323
0.82620001 0.088100001 -0.55650002 -0.82398719 -0.10173494 0.55740035 0.0041834004
0.80260003 0.2219 -0.55360001 -0.7971732 -0.23546278 0.5559426 0.0042985855
0.75770003 0.34999999 -0.55080003 -0.76312441 -0.33850181 0.55050677 0.0044433367
0.69260001 0.4691 -0.54790002 -0.69408089 -0.46235475 0.55179685 0.0043823472
0.60900003 0.57620001 -0.54509997 -0.60466468 -0.56932753 0.55699807 0.0043476489
0.50929999 0.66829997 -0.54220003 -0.50253981 -0.66378635 0.55393279 0.0044375765
0.396 0.7432 -0.53930002 -0.38997751 -0.75228411 0.53102368 0.0046750759
0.27219999 0.79879999 -0.53649998 -0.29111081 -0.79489845 0.5323447 0.0046641063
0.141 0.83389997 -0.53359997 -0.1593547 -0.83403021 0.5282042 0.0044888076
0.0059000002 0.84750003 -0.53079998 0.010116264 -0.84671855 0.53194481 0.0042810626
-0.12970001 0.83939999 -0.52789998 0.14611 -0.83606797 0.52881211 0.0041869553
-0.2622 0.80970001 -0.52499998 0.27859876 -0.80319691 0.52655244 0.0042862971
-0.3883 0.75929999 -0.52219999 0.38305569 -0.75926304 0.52610642 0.0044860961
-0.50480002 0.68959999 -0.51929998 0.50112402 -0.69064409 0.5214262 0.0043592956
-0.60879999 0.60219997 -0.5165 0.60641849 -0.60365051 0.51755452 0.0044167503
-0.69760001 0.49950001 -0.51359999 0.68740308 -0.49536091 0.5311259 0.0043342598
-0.76920003 0.38409999 -0.51069999 0.77053207 -0.38431332 0.50851119 0.0044666878
-0.82160002 0.2588 -0.5079 0.82313222 -0.25792962 0.50589091 0.0045051724
-0.85369998 0.1269 -0.505 0.84937686 -0.14895988 0.50632989 0.004276698
-0.86470002 -0.0085000005 -0.50209999 0.86405838 -0.013270816 0.50321668 0.0042278925
-0.85439998 -0.14390001 -0.4993 0.85674095 0.12298737 0.5008682 0.0043455833
-0.82300001 -0.27599999 -0.4964 0.8216188 0.29165953 0.48977274 0.0045363358
-0.77139997 -0.4016 -0.49360001 0.76638699 0.41777354 0.48797154 0.004678336
-0.70090002 -0.51770002 -0.49070001 0.7081393 0.5123803 0.48580369 0.0046553551
-0.61309999 -0.6214 -0.4878 0.5981378 0.63495398 0.48894244 0.004392182
-0.5104 -0.71020001 -0.48500001 0.49286884 0.72201121 0.48557201 0.004224096
-0.3951 -0.78200001 -0.48210001 0.37507468 0.79133189 0.48281765 0.0042052809
-0.2701 -0.8351 -0.47929999 0.26778409 0.83694774 0.47729456 0.0043559093
-0.1384 -0.86830002 -0.47639999 0.13487624 0.87014747 0.47397444 0.0043218178
-0.0031000001 -0.88080001 -0.47350001 -0.0016764868 0.88204277 0.4711664 0.0043980354
0.13240001 -0.87230003 -0.4707 -0.11663619 0.87408572 0.47156143 0.0041795215
0.2651 -0.84310001 -0.46779999 -0.25066215 0.84725708 0.46832028 0.0042021633
0.3917 -0.79400003 -0.46489999 -0.37876356 0.7997719 0.46572858 0.0043705306
0.50929999 -0.72600001 -0.4621 -0.50413734 0.74374181 0.43896911 0.0042320485
0.61510003 -0.64090002 -0.45919999 -0.60324311 0.65194225 0.4594225 0.004591648
0.70679998 -0.5406 -0.45640001 -0.69739741 0.55284601 0.45606816 0.0044631995
0.78200001 -0.42750001 -0.4535 -0.77493095 0.44035724 0.45339561 0.0044703051
0.83920002 -0.30430001 -0.4506 -0.82997501 0.31127656 0.46286967 0.0044095996
0.87709999 -0.17389999 -0.44780001 -0.86953175 0.17816536 0.46062094 0.0044011646
0.89469999 -0.0392 -0.44490001 -0.88776398 0.040325988 0.45852911 0.0045122234
0.89179999 0.096600004 -0.44209999 -0.8930949 -0.10475761 0.43750125 0.0045957174
0.86830002 0.2304 -0.43920001 -0.86602247 -0.21558902 0.45113891 0.0044333586
0.82499999 0.3592 -0.43630001 -0.82853651 -0.35179514 0.43562314 0.0045439829
0.76270002 0.4799 -0.43349999 -0.75674719 -0.48969299 0.43305254 0.0044298461
0.68309999 0.58990002 -0.43059999 -0.67483813 -0.59935039 0.43054929 0.0043231156
0.58770001 0.68669999 -0.4278 -0.57704586 -0.69522142 0.42858508 0.0043332665
0.479 0.76810002 -0.4249 -0.48530406 -0.76312745 0.42675108 0.0044778972
0.35929999 0.83230001 -0.42199999 -0.36561006 -0.82928497 0.42262957 0.0042594932
0.2313 0.8779 -0.4192 -0.23715605 -0.87645757 0.41902173 0.0041445182
0.097999997 0.90390003 -0.4163 -0.10304113 -0.90350354 0.41600952 0.0041393954
-0.037700001 0.90969998 -0.41339999 0.033631377 -0.90990335 0.41345477 0.0042381948
-0.1728 0.89529997 -0.41060001 0.16964869 -0.8955031 0.41145286 0.0044429074
-0.30430001 0.86089998 -0.4077 0.28145629 -0.87012243 0.40456069 0.004397375
-0.42910001 0.80739999 -0.40490001 0.40886539 -0.81938463 0.40179342 0.0044725984
-0.54470003 0.736 -0.40200001 0.52939624 -0.74143589 0.41232571 0.0044649998
-0.64840001 0.64829999 -0.39910001 0.65211695 -0.63841373 0.40886593 0.0044558272
-0.73799998 0.54619998 -0.39629999 0.74227548 -0.53297162 0.40616301 0.0043452014
-0.81160003 0.43189999 -0.39340001 0.81535101 -0.41508043 0.4036223 0.0043209321
-0.86750001 0.30809999 -0.3906 0.86968923 -0.28740117 0.40129954 0.0043824394
-0.90460002 0.17739999 -0.38769999 0.90845644 -0.15255058 0.38914669 0.0045396895
-0.92199999 0.0427 -0.38479999 0.92166287 -0.038415406 0.38608527 0.00460188
-0.91949999 -0.093199998 -0.382 0.91902035 0.098302476 0.38175672 0.0043768943
-0.89700001 -0.2272 -0.37909999 0.89601934 0.23318486 0.37785465 0.0042376155
-0.85519999 -0.35640001 -0.37630001 0.85313511 0.36327529 0.37442172 0.0041830973
-0.7949 -0.47819999 -0.3734 0.79139709 0.48545995 0.37150946 0.004216447
-0.71749997 -0.5898 -0.3705 0.71214944 0.59726703 0.368938 0.0043298001
-0.62459999 -0.68900001 -0.36770001 0.61727583 0.69600493 0.36680743 0.0045127892
-0.51819998 -0.77350003 -0.36480001 0.52738976 0.76699895 0.36547598 0.00451366
-0.4007 -0.84170002 -0.3619 0.40969056 0.83762801 0.36129355 0.0044865394
-0.27450001 -0.89200002 -0.35910001 0.28181839 0.8831988 0.37488434 0.0043044207
-0.14229999 -0.9235 -0.35620001 0.14842622 0.91635931 0.3718271 0.0042982763
-0.0070000002 -0.93550003 -0.35339999 0.011624998 0.92931896 0.36909488 0.0043595615
0.1287 -0.92769998 -0.35049999 -0.12703797 0.92987216 0.34525225 0.0044786111
0.26179999 -0.90030003 -0.34760001 -0.26145217 0.90247232 0.34232497 0.0044957418
0.38949999 -0.85399997 -0.3448 -0.39038685 0.85571879 0.33962244 0.0045753513
0.50919998 -0.78979999 -0.34189999 -0.48898965 0.80305266 0.34058106 0.0043360507
0.61839998 -0.70889997 -0.3391 -0.60116917 0.72443312 0.33733103 0.004282536
0.7148 -0.61320001 -0.3362 -0.70067447 0.63022709 0.33446845 0.0042894795
0.79650003 -0.50449997 -0.33329999 -0.78537786 0.52245623 0.33199573 0.0043678158
0.86159998 -0.38530001 -0.33050001 -0.85343111 0.40360969 0.32977954 0.0044996548
0.90890002 -0.2579 -0.3276 -0.91742527 0.24003763 0.31735277 0.0045977132
0.9375 -0.1251 -0.3247 -0.92973447 0.13340093 0.34321716 0.0046448051
0.94669998 0.0105 -0.32190001 -0.94935226 -0.0073169102 0.31412852 0.0048400671
0.9364 0.146 -0.31900001 -0.93949658 -0.1449388 0.31038514 0.004691659
0.90689999 0.27860001 -0.31619999 -0.90974152 -0.27967814 0.30683964 0.0045924485
0.85860002 0.4057 -0.31330001 -0.86074483 -0.40858933 0.30360025 0.0045556389
0.79280001 0.52450001 -0.31040001 -0.79096502 -0.52273929 0.31799039 0.004578311
0.71060002 0.63279998 -0.30759999 -0.706967 -0.63288891 0.31567276 0.0045197448
0.61390001 0.72820002 -0.30469999 -0.60775989 -0.72962868 0.31348038 0.0045069535
0.50449997 0.8089 -0.3019 -0.49651906 -0.81610823 0.29569584 0.0044293771
0.38479999 0.8732 -0.29899999 -0.37487984 -0.87965429 0.2927002 0.0043614614
0.2572 0.9199 -0.29609999 -0.24534717 -0.92506999 0.28991416 0.0043286402
0.1242 0.9479 -0.2933 -0.1294262 -0.94754303 0.29225191 0.0043978048
-0.0114 0.95679998 -0.2904 0.007322371 -0.95737845 0.28874362 0.0042669508
-0.1469 0.94639999 -0.28760001 0.1441474 -0.94745123 0.28558293 0.0041997638
-0.27950001 0.917 -0.28470001 0.27817479 -0.91799051 0.28268752 0.004173527
-0.40669999 0.86900002 -0.2818 0.40663251 -0.8696205 0.28001827 0.0041916468
-0.52579999 0.80360001 -0.27900001 0.52680814 -0.80336058 0.27764168 0.0042554652
-0.63440001 0.722 -0.27610001 0.63635761 -0.72050154 0.27554742 0.0043621403
-0.73049998 0.62589997 -0.27320001 0.71820754 -0.63997984 0.27313682 0.0043536196
-0.81209999 0.51709998 -0.27039999 0.80280185 -0.5319221 0.26938471 0.0042649559
-0.8775 0.398 -0.26750001 0.87114257 -0.41283995 0.26584548 0.0042199646
-0.92549998 0.27090001 -0.2647 0.92180371 -0.28523716 0.26252154 0.004216474
-0.95520002 0.1383 -0.26179999 0.95374626 -0.1517451 0.25950241 0.0042556264
-0.9659 0.0027999999 -0.25889999 0.96637934 -0.015016846 0.25668153 0.0043206383
-0.95749998 -0.1329 -0.2561 0.95945442 0.12198125 0.25410199 0.0044268556
-0.93010002 -0.266 -0.25319999 0.93315554 0.25664601 0.2517013 0.0045690918
-0.88440001 -0.39390001 -0.25040001 0.88477838 0.38631985 0.26062253 0.0045956136
-0.82120001 -0.51429999 -0.2475 0.82100427 0.50915116 0.25829658 0.0046976232
-0.74169999 -0.62449998 -0.2446 0.74561799 0.62570399 0.22923419 0.004642894
-0.6476 -0.72259998 -0.2418 0.6596272 0.70863563 0.25045443 0.0044726152
-0.54070002 -0.80650002 -0.23890001 0.53450209 0.80829722 0.2469071 0.004536577
-0.42320001 -0.87480003 -0.2361 0.41416803 0.8769201 0.24387717 0.0044369414
-0.29730001 -0.92589998 -0.2332 0.28545108 0.92761642 0.24092625 0.0043668863
-0.1654 -0.95889997 -0.23029999 0.15076791 0.95947194 0.23808108 0.004321814
-0.030300001 -0.97329998 -0.22750001 0.013019796 0.97182107 0.23535962 0.0043120552
0.1056 -0.96869999 -0.2246 -0.12520796 0.96445161 0.23271464 0.0043304297
0.2394 -0.94529998 -0.2217 -0.26089194 0.93753511 0.23013751 0.0043578851
0.3687 -0.9034 -0.2189 -0.39138496 0.89163625 0.22760189 0.0044184518
0.491 -0.84399998 -0.21600001 -0.49134505 0.83922666 0.23297788 0.0046830787
0.6038 -0.76810002 -0.2132 -0.61169022 0.76218516 0.21191701 0.0047256807
0.70490003 -0.67739999 -0.2103 -0.71302104 0.66953367 0.20814793 0.0045712464
0.79250002 -0.57349998 -0.20739999 -0.80035204 0.56355101 0.20456502 0.0044572842
0.86489999 -0.45840001 -0.20460001 -0.87201607 0.44623959 0.20114234 0.0043605198
0.9206 -0.3344 -0.2017 -0.92649657 0.32010481 0.1978309 0.0042895363
0.95859998 -0.20389999 -0.1989 -0.9627586 0.18757144 0.19471195 0.004238076
0.9781 -0.069399998 -0.19599999 -0.98010218 0.051302701 0.19174924 0.0042045703
0.97890002 0.066500001 -0.19310001 -0.97819978 -0.086105004 0.18897399 0.0042026923
0.96090001 0.20119999 -0.1903 -0.95710129 -0.22189966 0.18632707 0.0042247414
0.92439997 0.33219999 -0.1874 -0.91720915 -0.35344654 0.18385568 0.0042744866
0.87019998 0.45680001 -0.18449999 -0.85931361 -0.47817397 0.18146546 0.0043289126
0.79930001 0.57279998 -0.18170001 -0.79754871 -0.5755015 0.18087022 0.0045071077
0.71310002 0.67790002 -0.1788 -0.70994592 -0.68158424 0.17725614 0.0044254027
0.61320001 0.7701 -0.176 -0.60833079 -0.77442282 0.17378992 0.0043542595
0.50160003 0.84759998 -0.17309999 -0.49487528 -0.85209131 0.17040834 0.0042947358
0.38029999 0.90899998 -0.17020001 -0.37162638 -0.91321069 0.16715288 0.0042613111
0.2518 0.95319998 -0.1674 -0.24118075 -0.95651913 0.16402157 0.0042464184
0.1184 0.97920001 -0.1645 -0.10589937 -0.98124856 0.1610485 0.0042544999
-0.0173 0.9867 -0.1617 0.03146581 -0.98691136 0.15816413 0.0042663915
-0.15279999 0.97539997 -0.15880001 0.15165892 -0.9767462 0.15154654 0.0043494077
-0.2854 0.94559997 -0.1559 0.28575942 -0.94676977 0.14821821 0.0043169749
-0.4127 0.89789999 -0.1531 0.41441169 -0.89845955 0.14502876 0.0043030856
-0.53219998 0.83319998 -0.15019999 0.53506768 -0.83280909 0.14188568 0.0042966991
-0.64170003 0.75260001 -0.14740001 0.64549422 -0.75103533 0.13886383 0.0043030726
-0.7392 0.65789998 -0.1445 0.74354416 -0.65471953 0.13595746 0.0043186643
-0.82270002 0.55059999 -0.1416 0.82731146 -0.54574567 0.13310705 0.004340142
-0.89069998 0.43290001 -0.1388 0.88525492 -0.44492629 0.13551453 0.0042795944
-0.94199997 0.30700001 -0.13590001 0.93874151 -0.31825483 0.13220538 0.0042330408
-0.97549999 0.1753 -0.133 0.9741655 -0.18529573 0.12910056 0.004204879
-0.99070001 0.040199999 -0.1302 0.99083394 -0.048700087 0.12600163 0.0041859271
-0.98720002 -0.095700003 -0.12729999 0.98840427 0.088934056 0.12307571 0.0041721887
-0.96520001 -0.2298 -0.1245 0.96696246 0.22480483 0.12019317 0.0041647172
-0.92510003 -0.35969999 -0.1216 0.92692226 0.35640234 0.11744138 0.0041843825
-0.86760002 -0.48289999 -0.1187 0.86903328 0.48126137 0.11475468 0.0042148498
-0.7938 -0.59710002 -0.1159 0.79439306 0.59697825 0.1120561 0.0042542489
-0.7051 -0.7001 -0.113 0.70442104 0.70128447 0.10950379 0.0042938371
-0.6031 -0.79000002 -0.1102 0.60099435 0.79205853 0.10700038 0.0043459912
-0.48989999 -0.86519998 -0.1073 0.48591477 0.8677271 0.1045787 0.0044067428
-0.36739999 -0.9242 -0.1044 0.38211626 0.9184888 0.10181052 0.0043817302
-0.23800001 -0.9659 -0.1016 0.2517103 0.96279019 0.098371655 0.0043199509
-0.1042 -0.9896 -0.098700002 0.11656217 0.98862708 0.095024705 0.0042692642
0.0317 -0.99489999 -0.095899999 -0.020956626 0.9955644 0.091718376 0.0042434479
0.16689999 -0.98159999 -0.093000002 -0.15816702 0.98343688 0.088516288 0.0042222985
0.2992 -0.94989997 -0.090099998 -0.29243031 0.95246899 0.085366592 0.0042058164
0.4258 -0.90060002 -0.087300003 -0.42098162 0.903328 0.082298033 0.0041962592
0.54460001 -0.8344 -0.084399998 -0.54155743 0.83691835 0.079265714 0.0041965195
0.65319997 -0.75269997 -0.081500001 -0.65184534 0.75450593 0.076278612 0.0041964222
0.74980003 -0.65700001 -0.078699999 -0.74969536 0.65770495 0.073355906 0.0042102402
0.83240002 -0.54900002 -0.075800002 -0.83336025 0.54822379 0.070437916 0.0042348565
0.89950001 -0.43079999 -0.072999999 -0.90113831 0.42823046 0.067590497 0.0042520678
0.94989997 -0.3046 -0.070100002 -0.9517172 0.30006924 0.064751819 0.0042791809
0.98269999 -0.1726 -0.067199998 -0.98413002 0.1662544 0.062029541 0.0043107844
0.99720001 -0.0374 -0.064400002 -0.99781364 0.029226368 0.059276849 0.0043528932
0.9932 0.098399997 -0.061500002 -0.99249506 -0.10840563 0.056583412 0.0043891803
0.97079998 0.2325 -0.058699999 -0.9682681 -0.24403808 0.053872548 0.0044473335
0.93040001 0.36230001 -0.055799998 -0.93474376 -0.35245612 0.045042612 0.0044445423
0.87269998 0.48539999 -0.052900001 -0.87762004 -0.47751251 0.042010989 0.0044461358
0.79879999 0.5995 -0.050099999 -0.80383998 -0.59356558 0.039003376 0.0044571771
0.7101 0.7026 -0.047200002 -0.71485579 -0.69834465 0.03599856 0.0044671739
0.60820001 0.79259998 -0.044300001 -0.61219937 -0.79001069 0.033089768 0.0044848444
0.495 0.86790001 -0.041499998 -0.5085659 -0.85933727 0.05385362 0.0043503335
0.37259999 0.92720002 -0.038600001 -0.38581505 -0.92117804 0.050772082 0.0043317052
0.24339999 0.96929997 -0.035799999 -0.25570107 -0.96557939 0.047679529 0.0043242751
0.1096 0.99339998 -0.032900002 -0.12073733 -0.99167961 0.044655297 0.004309081
-0.0263 0.99919999 -0.029999999 0.016601959 -0.99899161 0.04171383 0.0043020006
-0.16159999 0.98650002 -0.0272 0.15357582 -0.98738009 0.038664017 0.0042911218
-0.294 0.95550001 -0.0243 0.287689 -0.95706075 0.035633985 0.004289445
-0.42089999 0.90679997 -0.021500001 0.41636369 -0.9086107 0.032680139 0.0042959237
-0.54009998 0.84140003 -0.0186 0.53712964 -0.84297603 0.029718658 0.0042918245
-0.64929998 0.7604 -0.015699999 0.64775962 -0.76137537 0.026738688 0.0042995703
-0.74650002 0.66530001 -0.0129 0.74619436 -0.66530097 0.023844549 0.0043176655
-0.82990003 0.55790001 -0.0099999998 0.8304897 -0.55664021 0.020941546 0.0043257112
-0.89789999 0.4402 -0.0071999999 0.89910245 -0.43736804 0.017997963 0.0043300404
-0.94929999 0.3143 -0.0043000001 0.95061755 -0.30999726 0.015097925 0.0043358244
-0.98320001 0.18260001 -0.0014 0.98200828 -0.18861108 -0.0092533985 0.0043699271
-0.9989 0.047600001 0.0014 0.99857038 -0.05204884 -0.01217615 0.0043446342
-0.99610001 -0.088399999 0.0043000001 0.99623102 0.085417747 -0.015085081 0.0043316758
-0.97490001 -0.2227 0.0071999999 0.97504377 0.22128569 -0.017953012 0.0043164971
-0.93559998 -0.35280001 0.0099999998 0.93543112 0.3528918 -0.020881884 0.0043053557
-0.87910002 -0.4765 0.0129 0.87810296 0.47787589 -0.023869028 0.0043030162
-0.80629998 -0.59130001 0.015699999 0.80413413 0.59384358 -0.026797673 0.0042977738
-0.71859998 -0.69520003 0.0186 0.7149446 0.69854993 -0.029701961 0.0042903461
-0.61760002 -0.78619999 0.021500001 0.6122691 0.78997523 -0.032642353 0.0042917584
-0.50510001 -0.86269999 0.0243 0.4979645 0.86646456 -0.035643674 0.0043013599
-0.38339999 -0.92320001 0.0272 0.37426439 0.92651629 -0.038648278 0.0043065492
-0.2545 -0.9666 0.029999999 0.24347629 0.9690128 -0.041634586 0.0043082773
-0.121 -0.9921 0.032900002 0.10815247 0.99313205 -0.044629823 0.0043206043
0.0148 -0.9993 0.035799999 -0.029274726 0.99843031 -0.047748473 0.0043432442
0.1503 -0.98790002 0.038600001 -0.16611427 0.98479402 -0.050861135 0.0043503237
0.28299999 -0.95819998 0.041499998 -0.28778148 0.957223 -0.030099198 0.0044692461
0.4104 -0.91079998 0.044300001 -0.41639781 0.9085806 -0.033078481 0.0044586225
0.5302 -0.84649998 0.047200002 -0.53709835 0.842749 -0.036049809 0.0044567022
0.64020002 -0.76660001 0.050099999 -0.64759856 0.76098037 -0.039050095 0.0044422648
0.73830003 -0.6724 0.052900001 -0.74584329 0.66479009 -0.042093862 0.0044522202
0.82270002 -0.56580001 0.055799998 -0.81611997 0.57563519 -0.050915055 0.004454697
0.89179999 -0.44870001 0.058699999 -0.88748777 0.45770329 -0.053602491 0.0044044233
0.9443 -0.32319999 0.061500002 -0.94194007 0.33102542 -0.056312561 0.0043525058
0.97930002 -0.1918 0.064400002 -0.97837573 0.19823591 -0.059020709 0.0043113441
0.99610001 -0.056899998 0.067199998 -0.99618465 0.061655536 -0.061763398 0.0042817262
0.99440002 0.079000004 0.070100002 -0.99500936 -0.076071575 -0.064571954 0.0042492007
0.97420001 0.21349999 0.072999999 -0.97485888 -0.21236983 -0.067448154 0.0042196503
0.93589997 0.34400001 0.075800002 -0.93614161 -0.34451422 -0.070348538 0.0042083962
0.88020003 0.46799999 0.078699999 -0.87955922 -0.47010505 -0.073326364 0.004195163
0.80809999 0.58329999 0.081500001 -0.80621415 -0.58667892 -0.076331258 0.0041895709
0.72100002 0.68779999 0.084399998 -0.71750933 -0.69201106 -0.079379678 0.0041933544
0.62050003 0.77929997 0.087300003 -0.61507875 -0.78414267 -0.082452491 0.004209999
0.50849998 0.85640001 0.090099998 -0.50086772 -0.86128455 -0.085559852 0.0042173807
0.38690001 0.9174 0.093000002 -0.37725011 -0.92184967 -0.088744387 0.0042425776
0.25819999 0.96130002 0.095899999 -0.24635202 -0.9648068 -0.091970138 0.0042772517
0.1248 0.98729998 0.098700002 -0.1108278 -0.98925292 -0.095371984 0.0043214257
-0.011 0.99479997 0.1016 0.026809147 -0.99474549 -0.098806843 0.0043823351
-0.14650001 0.98369998 0.1044 0.14196491 -0.98464704 -0.10156899 0.0044181463
-0.2793 0.95420003 0.1073 0.27651426 -0.95536536 -0.10400435 0.0043497276
-0.4068 0.90689999 0.1102 0.40573233 -0.9077664 -0.10649616 0.004294998
-0.5266 0.84259999 0.113 0.52718073 -0.84273064 -0.10902093 0.0042448305
-0.6365 0.76249999 0.1159 0.63837504 -0.76157868 -0.11169266 0.0042071003
-0.73449999 0.66820002 0.1187 0.73729527 -0.6658029 -0.11446521 0.0041894014
-0.8186 0.5614 0.1216 0.82204729 -0.55720872 -0.11728897 0.0041763904
-0.88730001 0.44400001 0.1245 0.89091963 -0.43798062 -0.12014578 0.0041708066
-0.93940002 0.3184 0.12729999 0.94257832 -0.31045499 -0.12314103 0.0041795834
-0.97369999 0.1868 0.1302 0.97609228 -0.17696913 -0.12619729 0.0042067268
-0.98979998 0.051800001 0.133 0.99079543 -0.04011156 -0.12928873 0.0042319028
-0.98710001 -0.084200002 0.13590001 0.98637795 0.097461917 -0.13251333 0.0042819213
-0.9659 -0.2185 0.1388 0.96849877 0.21232954 -0.13010097 0.0043363487
-0.92650002 -0.34869999 0.1416 0.92947149 0.34409741 -0.13296521 0.0043153022
-0.8696 -0.47220001 0.1445 0.87252581 0.46927267 -0.13594779 0.0043017487
-0.79629999 -0.58670002 0.14740001 0.79885191 0.58524847 -0.13899598 0.0042998083
-0.70789999 -0.69010001 0.15019999 0.70973766 0.68999451 -0.14205615 0.004308884
-0.6063 -0.78039998 0.1531 0.60699594 0.78131473 -0.14526965 0.0043237796
-0.49309999 -0.85589999 0.1559 0.49259177 0.85749018 -0.14853913 0.0043456475
-0.3707 -0.91509998 0.15880001 0.38399994 0.91021514 -0.15508835 0.0042708153
-0.2413 -0.9569 0.1617 0.25369745 0.95429975 -0.15795386 0.0042510615
-0.1074 -0.98049998 0.1645 0.11851826 0.97982401 -0.16092938 0.0042508817
0.0285 -0.98549998 0.1674 -0.018967181 0.9862622 -0.164095 0.0042659743
0.1638 -0.97170001 0.17020001 -0.15595044 0.97348589 -0.16734634 0.0042962474
0.29589999 -0.93940002 0.17309999 -0.28987977 0.94171798 -0.17069544 0.0043395339
0.42230001 -0.88919997 0.176 -0.41803703 0.89157432 -0.17418481 0.0044164145
0.5406 -0.82209998 0.1788 -0.53793222 0.82401812 -0.17782864 0.0045094569
0.64850003 -0.7392 0.18170001 -0.63056523 0.75533915 -0.17846642 0.0043292427
0.7439 -0.64230001 0.18449999 -0.72941786 0.65971303 -0.18090934 0.0042694635
0.82499999 -0.53320003 0.1874 -0.81398064 0.55117202 -0.18342555 0.0042276783
0.89020002 -0.41389999 0.1903 -0.88253862 0.4318606 -0.18606994 0.0042120493
0.93839997 -0.28670001 0.19310001 -0.93370092 0.30420759 -0.18883923 0.0042051859
0.9684 -0.154 0.19599999 -0.96647781 0.17073543 -0.19175489 0.004234748
0.9799 -0.0185 0.1989 -0.9802469 0.033936575 -0.19484457 0.0042848215
0.97240001 0.1173 0.2017 -0.97470212 -0.10348965 -0.19810519 0.0043612551
0.94620001 0.2507 0.20460001 -0.94996113 -0.23863031 -0.20156729 0.0044571152
0.90170002 0.3793 0.20739999 -0.90649563 -0.36900079 -0.2051926 0.0045787338
0.83990002 0.50040001 0.2103 -0.84514982 -0.49198368 -0.2089828 0.0047276905
0.76179999 0.6117 0.2132 -0.76047987 -0.60722369 -0.23010787 0.0046762954
0.66900003 0.7112 0.21600001 -0.68595511 -0.69205946 -0.22476508 0.0044188444
0.56330001 0.7967 0.2189 -0.58056951 -0.78184378 -0.22728693 0.0043607084
0.44670001 0.86680001 0.2217 -0.4635087 -0.85577857 -0.2297882 0.0043295813
0.3215 0.9199 0.2246 -0.33716187 -0.91230369 -0.2324304 0.0043128035
0.1901 0.95499998 0.22750001 -0.20396461 -0.9503051 -0.23519929 0.0043305214
0.055100001 0.9716 0.23029999 -0.066704646 -0.96895534 -0.2380674 0.0043774769
-0.080899999 0.9691 0.2332 0.071758173 -0.96786171 -0.24102779 0.004437787
-0.21520001 0.94760001 0.2361 0.20863362 -0.94705176 -0.24405915 0.0045286696
-0.3452 0.90759999 0.23890001 0.36137566 -0.8989675 -0.24751772 0.0044862037
-0.46830001 0.84990001 0.2418 0.47155398 -0.85231739 -0.22625642 0.0046456852
-0.58209997 0.77539998 0.2446 0.58381969 -0.77066743 -0.25539416 0.0046943268
-0.68440002 0.68580002 0.2475 0.68755811 -0.67883313 -0.25777805 0.0046022316
-0.77319998 0.58270001 0.25040001 0.77931809 -0.57513148 -0.24877103 0.0045720916
-0.8466 0.4682 0.25319999 0.85232645 -0.45876265 -0.25115046 0.0044344827
-0.90319997 0.34450001 0.2561 0.90806854 -0.33322939 -0.253712 0.0043234918
-0.94190001 0.2142 0.25889999 0.94538951 -0.20106938 -0.25653434 0.0042530526
-0.96179998 0.079599999 0.26179999 0.96354461 -0.064895354 -0.25955796 0.0042096716
-0.96270001 -0.056400001 0.2647 0.96210498 0.072472714 -0.26287213 0.0042199912
-0.94440001 -0.1912 0.26750001 0.94109255 0.20830408 -0.26637253 0.004261212
-0.9073 -0.322 0.27039999 0.90090597 0.33965832 -0.27018648 0.0043512643
-0.85210001 -0.4463 0.27320001 0.85341096 0.44427937 -0.27259037 0.0043640896
-0.77999997 -0.56160003 0.27610001 0.78090626 0.56099153 -0.2747252 0.0042460621
-0.69220001 -0.6656 0.27900001 0.69246268 0.66612285 -0.27708441 0.0041901427
-0.59069997 -0.7561 0.2818 0.58981818 0.75754094 -0.27972534 0.0041719093
-0.4774 -0.83130002 0.28470001 0.47523677 0.83321714 -0.28266454 0.0042046811
-0.3545 -0.8897 0.28760001 0.35099041 0.89169097 -0.28581986 0.0042772996
-0.2247 -0.93019998 0.2904 0.21968208 0.93170387 -0.28925368 0.00439665
-0.090400003 -0.95169997 0.2933 0.10328663 0.95236999 -0.28692046 0.0043348894
0.045600001 -0.95410001 0.29609999 -0.034032404 0.95650387 -0.2897279 0.0043655336
0.1806 -0.93699998 0.29899999 -0.17053486 0.94086736 -0.29272243 0.0044348016
0.31169999 -0.90100002 0.3019 -0.30556574 0.90012068 -0.31050327 0.0045142705
0.4364 -0.8466 0.30469999 -0.43296555 0.84544915 -0.31266063 0.0045303707
0.5521 -0.77499998 0.30759999 -0.55113596 0.77268386 -0.31497431 0.0045934408
0.65630001 -0.68769997 0.31040001 -0.65721059 0.6911726 -0.30059072 0.0045450926
0.74699998 -0.58630002 0.31330001 -0.7493012 0.58835357 -0.30395338 0.0045815231
0.82239997 -0.47299999 0.31619999 -0.8255595 0.47319201 -0.30747485 0.0046856278
0.88069999 -0.3502 0.31900001 -0.88428754 0.34808287 -0.31124553 0.0048471405
0.92079997 -0.2202 0.32190001 -0.91662967 0.20962298 -0.34036493 0.0046510347
0.94190001 -0.0858 0.3247 -0.94341671 0.10544748 -0.31439757 0.0045960587
0.94349998 0.0502 0.3276 -0.94244671 -0.070257507 -0.32689166 0.0045080557
0.92549998 0.185 0.33050001 -0.92161524 -0.20580554 -0.32904306 0.0043646139
0.8883 0.3159 0.33329999 -0.88126463 -0.33684489 -0.33152425 0.0042865002
0.83270001 0.44 0.3362 -0.82217354 -0.46069437 -0.33435217 0.0042798924
0.7597 0.55479997 0.3391 -0.74560833 -0.57454938 -0.33758152 0.0043306025
0.671 0.65789998 0.34189999 -0.67241317 -0.65917456 -0.33667403 0.0045792363
0.56830001 0.7471 0.3448 -0.56877464 -0.74920237 -0.33939818 0.0045042611
0.45379999 0.82050002 0.34760001 -0.45302895 -0.82313889 -0.34235519 0.0044834479
0.32980001 0.87660003 0.35049999 -0.32328716 -0.87256593 -0.36621583 0.004366816
0.1991 0.91409999 0.35339999 -0.19074874 -0.90962571 -0.36904731 0.0043031452
0.064199999 0.93220001 0.35620001 -0.054158542 -0.92660564 -0.37211391 0.0043091886
-0.071800001 0.93049997 0.35910001 0.081638783 -0.92998672 -0.35841289 0.0044795638
-0.2061 0.9091 0.3619 0.21678643 -0.90640777 -0.36253074 0.0045063766
-0.33590001 0.86839998 0.36480001 0.32648039 -0.87236279 -0.36385944 0.0045188577
-0.45840001 0.80919999 0.36770001 0.45072868 -0.81418884 -0.36597863 0.0043298332
-0.57090002 0.73269999 0.3705 0.56496704 -0.73824483 -0.36851987 0.004213227
-0.671 0.64060003 0.3734 0.66659975 -0.64621949 -0.37154445 0.0041852104
-0.75660002 0.53479999 0.37630001 0.75345165 -0.54012823 -0.37492934 0.0042407704
-0.82569999 0.41769999 0.37909999 0.8234852 -0.42232218 -0.3788352 0.0043764529
-0.87690002 0.29170001 0.382 0.87517983 -0.29538709 -0.38315365 0.0045993407
-0.9091 0.1595 0.38479999 0.9038564 -0.18408282 -0.38620871 0.0045404644
-0.92150003 0.024 0.38769999 0.91615462 -0.044144738 -0.39838678 0.0043891631
-0.9138 -0.1118 0.3906 0.91128659 0.094698168 -0.40073568 0.0043279794
-0.88609999 -0.245 0.39340001 0.88539934 0.23125447 -0.40322363 0.0043485425
-0.8391 -0.37270001 0.39629999 0.83906788 0.3622112 -0.40591636 0.0044476953
-0.7737 -0.49200001 0.39910001 0.7615267 0.50247401 -0.40938619 0.0044581629
-0.69139999 -0.60030001 0.40200001 0.67493027 0.61112946 -0.41350931 0.0045079621
-0.59399998 -0.69520003 0.40490001 0.5759812 0.71193653 -0.40173626 0.0044144504
-0.4835 -0.77460003 0.4077 0.48064131 0.77592516 -0.40856323 0.0044373516
-0.36250001 -0.83670002 0.41060001 0.35875338 0.83831257 -0.41052175 0.0042403671
-0.2335 -0.88010001 0.41339999 0.22871163 0.88151556 -0.41306326 0.0041411705
-0.0995 -0.90380001 0.4163 0.093520835 0.90447658 -0.41614425 0.0041477568
0.036499999 -0.90719998 0.4192 -0.043481935 0.90661091 -0.41972136 0.0042564226
0.1714 -0.89020002 0.42199999 -0.17918585 0.88783216 -0.42384711 0.0044820122
0.30239999 -0.85329998 0.4249 -0.28936204 0.85736883 -0.42566225 0.004333178
0.42629999 -0.79710001 0.4278 -0.41525391 0.80293262 -0.42762545 0.004330215
0.54030001 -0.72289997 0.43059999 -0.5313518 0.729873 -0.43005893 0.0044288761
0.6419 -0.63249999 0.43349999 -0.6479944 0.62683368 -0.43264627 0.004544497
0.7288 -0.52770001 0.43630001 -0.73198193 0.51310587 -0.44824639 0.0044298084
0.79879999 -0.4111 0.43920001 -0.79710889 0.41916931 -0.43464303 0.0046030837
0.85039997 -0.2852 0.44209999 -0.844432 0.28155756 -0.45569721 0.0045108083
0.88239998 -0.153 0.44490001 -0.87696666 0.14623725 -0.45776001 0.0044009914
0.89399999 -0.0174 0.44780001 -0.88791549 0.007444418 -0.45994639 0.0044087861
0.88480002 0.1183 0.4506 -0.88285059 -0.1328406 -0.45047569 0.0044549922
0.85509998 0.2511 0.4535 -0.85086817 -0.26593587 -0.45310214 0.0044560116
0.80559999 0.37779999 0.45640001 -0.79852891 -0.39241022 -0.45647097 0.0045881402
0.73729998 0.4955 0.45919999 -0.73885101 -0.51386017 -0.43594369 0.0042331656
0.65179998 0.6013 0.4621 -0.64184493 -0.61144519 -0.46278489 0.0043716324
0.55110002 0.6929 0.46489999 -0.53916895 -0.70194811 -0.46536624 0.004204859
0.43759999 0.76789999 0.46779999 -0.42356637 -0.7752344 -0.46861845 0.0041811792
0.31389999 0.82459998 0.4707 -0.29774833 -0.8294856 -0.47254583 0.0042924848
0.183 0.86159998 0.47350001 -0.18689369 -0.86202824 -0.47114557 0.0043344372
0.047899999 0.8779 0.47639999 -0.05068941 -0.87883788 -0.47442028 0.004360795
-0.088 0.8732 0.47929999 0.065995075 -0.87483889 -0.47989747 0.0041937092
-0.2217 0.84759998 0.48210001 0.20100902 -0.85245281 -0.48261741 0.0042108824
-0.3497 0.80159998 0.48500001 0.33073568 -0.80890882 -0.48608691 0.0043849749
-0.46900001 0.73619998 0.4878 0.47774556 -0.73390818 -0.48284364 0.0046553076
-0.57679999 0.65310001 0.49070001 0.5663535 -0.66629362 -0.48507372 0.0046709226
-0.67019999 0.55419999 0.49360001 0.66332316 -0.56834126 -0.48681676 0.004541046
-0.7471 0.442 0.4964 0.75689316 -0.42325923 -0.49796012 0.0043441439
-0.80549997 0.31909999 0.4993 0.81281388 -0.29844967 -0.50026125 0.0042240126
-0.84399998 0.1885 0.50209999 0.84791493 -0.16637002 -0.50335002 0.0042728735
-0.86140001 0.053599998 0.505 0.86253262 -0.055007081 -0.50300276 0.0045154016
-0.85750002 -0.082400002 0.5079 0.85885352 0.08209803 -0.50559932 0.0044748848
-0.83209997 -0.21610001 0.51069999 0.82118714 0.21587835 -0.5282501 0.0043468676
-0.78600001 -0.3441 0.51359999 0.78448069 0.34623513 -0.51450104 0.004412733
-0.7202 -0.4632 0.5165 0.71736574 0.46545476 -0.5183996 0.0043596905
-0.63639998 -0.5704 0.51929998 0.63149619 0.57228976 -0.52316052 0.0044897008
-0.53659999 -0.66289997 0.52219999 0.54960406 0.65096152 -0.52362627 0.0042810645
-0.4233 -0.73830003 0.52499998 0.4375574 0.72935414 -0.52591455 0.0041819098
-0.29949999 -0.79470003 0.52789998 0.31414291 0.7882666 -0.52910298 0.0042794878
-0.1683 -0.83069998 0.53079998 0.15116426 0.83735645 -0.52534115 0.004484239
-0.032900002 -0.84509999 0.53359997 0.013794023 0.84822351 -0.52945876 0.0046690702
0.1029 -0.83759999 0.53649998 -0.093982764 0.84388965 -0.52822101 0.0046843165
0.2358 -0.80839998 0.53930002 -0.23108788 0.80175853 -0.55116385 0.0044340217
0.36230001 -0.75809997 0.54220003 -0.3605589 0.75023031 -0.55421269 0.004350869
0.479 -0.68809998 0.54509997 -0.48275116 0.68238133 -0.54891443 0.0043828236
0.58279997 -0.60009998 0.54790002 -0.58603352 0.59246057 -0.5527705 0.0044822213
0.67089999 -0.49649999 0.55080003 -0.6610024 0.50719208 -0.55302083 0.0042954069
0.74110001 -0.37979999 0.55360001 -0.73424959 0.39177361 -0.5544284 0.0041835629
0.7913 -0.25330001 0.55650002 -0.79299986 0.24759504 -0.55663973 0.0042988043
0.82010001 -0.1204 0.55940002 -0.81989253 0.11367701 -0.5611183 0.0043772589
0.82679999 0.0156 0.56220001 -0.8236264 -0.02276407 -0.5666756 0.004684676
0.81110001 0.1507 0.56510001 -0.81143248 -0.13595465 -0.5684132 0.0045025419
0.77340001 0.28150001 0.56800002 -0.767923 -0.27110595 -0.58034104 0.0043245517
0.71469998 0.4043 0.57080001 -0.7083655 -0.39748898 -0.58328456 0.0043892791
0.63639998 0.51560003 0.57370001 -0.63582706 -0.52408046 -0.56662476 0.0046937354
0.54079998 0.61250001 0.5765 -0.54597223 -0.62506533 -0.55785984 0.0044250842
0.4305 0.69209999 0.5794 -0.4241198 -0.69349599 -0.58239651 0.0043561868
0.30840001 0.75220001 0.58230001 -0.30127102 -0.75326926 -0.58465481 0.0041268077
0.178 0.79119998 0.5851 -0.16979586 -0.79084855 -0.58798629 0.0041424674
0.0429 0.80769998 0.588 -0.033913508 -0.80484599 -0.59251398 0.0044387523
-0.093099996 0.80140001 0.59079999 0.079149045 -0.80025131 -0.59441853 0.0043360004
-0.226 0.7723 0.59369999 0.21329391 -0.77380973 -0.59642625 0.0044373758
-0.3522 0.72119999 0.5966 0.35715213 -0.70784509 -0.60942411 0.0044678575
-0.46779999 0.64950001 0.59939998 0.46045277 -0.65518826 -0.59892541 0.0046578567
-0.5697 0.55919999 0.60229999 0.561369 -0.55065846 -0.61777025 0.0046213954
-0.65469998 0.45289999 0.60519999 0.65667629 -0.44571432 -0.60837072 0.0045502358
-0.72039998 0.3337 0.60799998 0.72231907 -0.32628345 -0.60974932 0.0043780711
-0.7647 0.205 0.61089998 0.77974784 -0.20047359 -0.59313035 0.0042247418
-0.7863 0.070600003 0.61369997 0.80071503 -0.06692408 -0.59529543 0.0041826414
-0.78460002 -0.065399997 0.61659998 0.78112113 0.070258081 -0.62041402 0.0042364527
-0.75929999 -0.1992 0.61949998 0.75495774 0.20427464 -0.62314582 0.0041915104
-0.71139997 -0.32659999 0.62230003 0.71541989 0.31553605 -0.62338704 0.0043795863
-0.64209998 -0.44369999 0.62519997 0.64761907 0.43451056 -0.62593132 0.004499014
-0.5535 -0.54699999 0.62800002 0.5630579 0.54091275 -0.62480336 0.0046215435
-0.44819999 -0.63330001 0.63090003 0.45807812 0.62996429 -0.6271438 0.0044714212
-0.3294 -0.69989997 0.63380003 0.30458462 0.70714396 -0.63810313 0.004388554
-0.2009 -0.7446 0.63660002 0.19681355 0.73992705 -0.64325148 0.0047771586
-0.066399999 -0.76590002 0.63950002 0.06240011 0.76308602 -0.64327759 0.0043732869
0.069700003 -0.76319999 0.64230001 -0.074069627 0.760813 -0.64473039 0.0043204175
0.2031 -0.73650002 0.64520001 -0.21285699 0.74653149 -0.6303829 0.0043484955
0.32969999 -0.68650001 0.64810002 -0.3313137 0.68444657 -0.64943361 0.0043919836
0.4454 -0.61470002 0.65090001 -0.42889619 0.62252939 -0.65460306 0.0042433385
0.54640001 -0.52350003 0.65380001 -0.53229207 0.53345996 -0.6573323 0.004189448
0.62940001 -0.41549999 0.65670002 -0.61673439 0.42639709 -0.6616829 0.0045081945
0.69160002 -0.29449999 0.6595 -0.69820732 0.31526002 -0.6427424 0.0043799803
0.73100001 -0.16410001 0.66240001 -0.73086381 0.14325328 -0.66732049 0.0044042123
0.74610001 -0.028899999 0.6652 -0.74295211 0.0074899844 -0.66930264 0.0041921656
0.73640001 0.1069 0.6681 -0.73471409 -0.10466809 -0.67025346 0.0045301612
0.70200002 0.2387 0.671 -0.70104951 -0.23718354 -0.67251283 0.0044791815
0.64420003 0.3619 0.67379999 -0.64199859 -0.35913309 -0.67739302 0.0044390718
0.56470001 0.47240001 0.6767 -0.56193161 -0.46941265 -0.68109077 0.0042957724
0.46619999 0.56639999 0.67949998 -0.46159026 -0.56172127 -0.68658841 0.0046005123
0.35210001 0.64060003 0.68239999 -0.36993864 -0.62611717 -0.68638378 0.0042462149
0.2261 0.69230002 0.68529999 -0.2174249 -0.69707203 -0.68324006 0.0044378359
0.092699997 0.71960002 0.68809998 -0.08190605 -0.72184181 -0.68719423 0.0046718665
-0.043400001 0.7216 0.69099998 0.053528436 -0.71787483 -0.69411129 0.0045476262
-0.17749999 0.6979 0.69379997 0.17068759 -0.69393772 -0.69951141 0.0043943841
-0.30469999 0.6494 0.69669998 0.29852781 -0.64670748 -0.70189077 0.0042866389
-0.42050001 0.57779998 0.69959998 0.42504096 -0.59187192 -0.68485606 0.0041184742
-0.5205 0.48539999 0.70240003 0.5125277 -0.48841754 -0.70623201 0.0043137041
-0.60119998 0.3757 0.70529997 0.59392279 -0.37932596 -0.70948392 0.0042567165
-0.65930003 0.25260001 0.70819998 0.65064251 -0.25598732 -0.71493697 0.0047268155
-0.69279999 0.1206 0.71100003 0.69557357 -0.12147424 -0.70811123 0.0047825174
-0.7001 -0.0154 0.71390003 0.6929639 0.023785165 -0.7205798 0.0046505076
-0.68099999 -0.15019999 0.71670002 0.67192423 0.15815566 -0.72353619 0.0043737884
-0.63599998 -0.27869999 0.71960002 0.63491696 0.26372391 -0.72617501 0.004452216
-0.5668 -0.396 0.72250003 0.56980085 0.38339391 -0.72686732 0.0041358517
-0.47589999 -0.49739999 0.72530001 0.4906604 0.50119686 -0.71277916 0.0042176526
-0.36680001 -0.57889998 0.72820002 0.38442022 0.58310884 -0.71568513 0.004393043
-0.2438 -0.63730001 0.73100001 0.2469317 0.61947304 -0.74516964 0.0044704918
-0.1116 -0.67000002 0.73390001 0.11078448 0.65462047 -0.74779606 0.0045224475
0.024499999 -0.67570001 0.73680001 -0.026689636 0.6885848 -0.72466451 0.0043174182
0.15889999 -0.65399998 0.7396 -0.15806314 0.64753336 -0.74546403 0.0042853975
0.28619999 -0.6056 0.74250001 -0.28539377 0.59952265 -0.74774528 0.004095614
0.40110001 -0.53250003 0.74540001 -0.41381812 0.53984368 -0.73302352 0.004197686
0.49869999 -0.4375 0.7482 -0.50798702 0.44481722 -0.73762244 0.0044324645
0.57489997 -0.32460001 0.7511 -0.56329477 0.31124821 -0.76539111 0.0044570132
0.62629998 -0.19850001 0.75389999 -0.62689209 0.17711221 -0.75870788 0.0046405238
0.6505 -0.064400002 0.7568 -0.66374493 0.0522401 -0.74613249 0.0042724703
0.64639997 0.071699999 0.7597 -0.63799882 -0.085249819 -0.76530385 0.0041660871
0.61400002 0.204 0.76249999 -0.6297577 -0.20066513 -0.75042576 0.0042771823
0.5546 0.32659999 0.76539999 -0.55096036 -0.31556118 -0.77256954 0.0043516732
0.4707 0.4339 0.76819998 -0.47695559 -0.43976751 -0.76099795 0.0047130478
0.366 0.52100003 0.77109998 -0.39804429 -0.5140543 -0.75980848 0.0042611635
0.24510001 0.58389997 0.77399999 -0.23569633 -0.57863611 -0.78078645 0.0044644959
0.1136 0.61940002 0.77679998 -0.104561 -0.6138835 -0.78244114 0.0043138443
-0.022500001 0.62580001 0.77969998 0.028641656 -0.63863283 -0.76897842 0.00409623
-0.1567 0.60250002 0.78250003 0.15868184 -0.59259999 -0.78971213 0.0042605647
-0.2827 0.55059999 0.78539997 0.26919609 -0.5496037 -0.79086614 0.0045024441
-0.39430001 0.47240001 0.78829998 0.3883622 -0.49328759 -0.77835864 0.004326066
-0.48590001 0.3716 0.79110003 0.48927173 -0.35108808 -0.79834229 0.004365237
-0.5528 0.2529 0.79400003 0.57253176 -0.23724867 -0.78480595 0.0042119049
-0.59170002 0.1223 0.79689997 0.60607034 -0.10830078 -0.78800356 0.0041352301
-0.6002 -0.0137 0.79970002 0.58911884 0.029942492 -0.80749148 0.0043417593
-0.57789999 -0.1481 0.80260003 0.57053322 0.14395626 -0.80855948 0.0045446274
-0.52560002 -0.2739 0.80540001 0.53008014 0.24554729 -0.81161672 0.0042170919
-0.44589999 -0.3845 0.80830002 0.44997042 0.39845997 -0.79922223 0.0044033597
-0.34290001 -0.47369999 0.81120002 0.33133546 0.46769586 -0.81943721 0.004432858
-0.2221 -0.53670001 0.81400001 0.21280682 0.54879725 -0.80841494 0.0043915501
-0.089900002 -0.56980002 0.81690001 0.10959637 0.57733035 -0.80912191 0.0042716283
0.046399999 -0.57080001 0.8197 -0.028649263 0.56239533 -0.82637197 0.0041972953
0.17910001 -0.53969997 0.82260001 -0.17119236 0.55574363 -0.81353688 0.0043089716
0.30050001 -0.47780001 0.82550001 -0.31827882 0.47998816 -0.8175022 0.0043466012
0.40360001 -0.38859999 0.8283 -0.40714851 0.36676964 -0.83648682 0.0043132026
0.48199999 -0.2771 0.8312 -0.48644423 0.28781739 -0.82494432 0.0043505919
0.53100002 -0.1498 0.83399999 -0.51841676 0.15340619 -0.84125537 0.0042735022
0.54710001 -0.0145 0.8369 -0.55968881 0.016671808 -0.8285352 0.004394813
0.52939999 0.1207 0.8398 -0.53214163 -0.14574599 -0.83401644 0.0043402179
0.47839999 0.2472 0.84259999 -0.4839665 -0.2561827 -0.83674783 0.0046149497
0.3973 0.35679999 0.84549999 -0.40133986 -0.36311236 -0.84087801 0.0044337548
0.2911 0.44220001 0.8484 -0.31040588 -0.44209841 -0.84154445 0.0040696445
0.1665 0.49770001 0.85119998 -0.16399704 -0.50997174 -0.84441334 0.0045434046
0.0319 0.51920003 0.85409999 -0.012971018 -0.52639425 -0.85014164 0.0043974104
-0.1038 0.50489998 0.85689998 0.091525383 -0.51479596 -0.85241318 0.0045558047
-0.2309 0.45550001 0.85979998 0.23158437 -0.46368423 -0.85519922 0.0043519065
-0.34040001 0.3741 0.86269999 0.33947283 -0.38804314 -0.85684341 0.0040703723
-0.42410001 0.26640001 0.86549997 0.40516317 -0.26647714 -0.87454712 0.0045541339
